-23.00039 -3.6429 5.80613
-12.60762 -0.39621 3.14498
-12.58895 0.79203 3.14498
-25.87544 4.09827 6.53189
-13.97653 4.06056 3.62883
-12.63021 5.00066 3.38691
-21.61349 11.01263 6.04805
-13.64271 9.27158 4.11267
-8.73395 7.70002 2.90306
-22.58324 24.04871 8.22534
-8.55488 11.77479 3.62883
-5.92705 10.02209 2.90306
-11.98082 25.46054 7.01573
-3.89789 11.99648 3.14498
-2.96329 13.25699 3.38691
-3.04026 24.06611 6.04805
0 13.58414 3.38691
1.09576 11.59187 2.90306
2.96329 13.25699 3.38691
4.27278 11.86812 3.14498
4.95758 10.5354 2.90306
8.83848 13.92721 4.11267
7.73111 9.96689 3.14498
15.2769 16.26825 5.5642
9.96689 7.73111 3.14498
9.83097 6.23893 2.90306
24.20712 12.33413 6.77381
11.99648 3.89789 3.14498
13.25699 2.96329 3.38691
30.80463 3.89153 7.7415
16.49503 0 4.11267
11.59187 -1.09576 2.90306
26.68706 -5.09082 6.77381
13.84209 -4.49757 3.62883
11.57641 -5.00956 3.14498
18.37383 -10.86626 5.32228
11.77478 -8.55488 3.62883
6.36584 -5.97792 2.1773
12.19169 -13.82876 4.59652
6.84391 -9.41983 2.90306
5.60932 -10.20332 2.90306
5.00065 -12.63021 3.38691
3.24845 -11.18123 2.90306
3.33932 -21.08369 5.32228
0.30478 -9.69817 2.41922
-1.09575 -11.59187 2.90306
-4.90901 -25.73394 6.53189
-2.69854 -8.30525 2.1773
-8.47772 -19.59085 5.32228
-4.67919 -7.37323 2.1773
-4.75761 -6.13347 1.93538
-4.64949 -4.95121 1.69345
-10.18961 -8.98335 3.38691
-7.84986 -5.70325 2.41922
-10.85727 -6.42097 3.14498
-15.80309 -7.43637 4.35459
-12.11299 -3.51915 3.14498
-28.59327 -5.45446 7.25766
-16.49503 0 4.11267
-13.52385 1.27838 3.38691
-18.93855 4.23327 4.83844
-13.84209 4.49757 3.62883
-12.2913 5.78384 3.38691
-15.03314 8.89057 4.35459
-10.73358 8.32581 3.38691
-12.02436 11.29162 4.11267
-12.83336 14.55659 4.83844
-7.41423 10.20481 3.14498
-6.07676 11.0536 3.14498
-6.55097 15.13838 4.11267
-2.70704 9.31769 2.41922
-4.90901 25.73394 6.53189
-0.36573 11.6378 2.90306
0.79203 12.58895 3.14498
2.18178 11.43731 2.90306
3.78985 13.04476 3.38691
4.28628 10.8259 2.90306
4.40505 8.6454 2.41922
6.75884 10.65022 3.14498
6.1849 7.47626 2.41922
6.86103 6.86103 2.41922
7.47626 6.1849 2.41922
11.23517 7.63542 3.38691
8.6454 4.40505 2.41922
10.8259 4.28627 2.90306
13.04476 3.78986 3.38691
12.39042 2.3636 3.14498
9.68381 0.60925 2.41922
11.6378 -0.36573 2.90306
12.51438 -1.58093 3.14498
12.31006 -2.75163 3.14498
11.86812 -4.27278 3.14498
8.7795 -4.13132 2.41922
10.85726 -6.42097 3.14498
10.9898 -7.98456 3.38691
9.46179 -8.34168 3.14498
8.63477 -9.1951 3.14498
7.73111 -9.96689 3.14498
7.40881 -12.52761 3.62883
4.13132 -8.7795 2.41922
4.27279 -11.86812 3.14498
3.13694 -12.21756 3.14498
1.58093 -12.51438 3.14498
0.36573 -11.6378 2.90306
-1.27262 -13.46295 3.62347
-4.8869 -25.61805 6.98811
-2.3879 -7.3492 2.07055
-2.05636 -4.36998 1.29409
-5.90035 -9.97696 3.10583
-5.32821 -6.86908 2.32937
-5.28977 -5.63304 2.07055
-10.14372 -8.9429 3.62347
-10.15886 -7.38084 3.36465
-11.00381 -6.0494 3.36465
-13.29724 -5.75423 3.88228
-9.27572 -2.69485 2.58819
-13.28343 -2.53395 3.62347
-18.31638 -1.15237 4.91756
-16.41264 0.51579 4.39992
-19.16619 2.42125 5.17638
-14.03369 3.60324 3.88228
-12.57333 4.97814 3.62347
-19.79486 10.08599 5.95284
-13.58127 9.22983 4.39992
-11.16388 9.23556 3.88228
-15.02628 15.02628 5.69402
-8.88034 11.44847 3.88228
-5.17569 8.15558 2.58819
-7.45486 14.63099 4.39992
-4.25354 11.81467 3.36465
-2.88259 11.22695 3.10583
-3.47539 21.94278 5.95284
-0.42477 13.51629 3.62347
0.90976 14.4603 3.88228
2.56877 16.21857 4.39992
3.77279 12.98602 3.62347
4.26697 10.77714 3.10583
12.27859 24.09809 7.24693
9.65187 13.28466 4.39992
8.30412 9.41917 3.36465
19.0115 17.85299 6.98811
11.72176 8.51635 3.88228
10.80837 6.39205 3.36465
29.71586 13.98323 8.79984
15.61705 5.07428 4.39992
13.28343 2.53395 3.62347
16.34787 1.54533 4.39992
14.48889 0 3.88228
13.46295 -1.27262 3.62347
11.31196 -2.52853 3.10583
11.94245 -3.88034 3.36465
12.41076 -5.37062 3.62347
24.54697 -13.49482 7.50575
11.72175 -8.51636 3.88228
12.31738 -10.85923 4.39992
14.6919 -16.66469 5.95284
6.81308 -9.3774 3.10583
6.88375 -11.63978 3.62347
5.7578 -12.23594 3.62347
3.58185 -11.0238 3.10583
2.52852 -11.31196 3.10583
1.18173 -12.50131 3.36465
0 -11.59111 3.10583
-1.45275 -11.49971 3.10583
-1.89639 -8.48397 2.32937
-2.61757 -7.27057 2.07055
-2.8789 -6.11797 1.81173
-4.42527 -7.48272 2.32937
-4.54206 -6.2516 2.07055
-5.11023 -5.79641 2.07055
-5.79641 -5.11023 2.07055
-7.03305 -5.10981 2.32937
-10.80837 -6.39205 3.36465
-11.36195 -5.34653 3.36465
-11.81467 -4.25355 3.36465
-12.16253 -3.12281 3.36465
-28.62101 -4.53312 7.76457
-17.37809 -0.54613 4.65874
-17.35236 1.09172 4.65874
-13.28343 2.53395 3.62347
-13.91359 4.04227 3.88228
-15.26762 6.04488 4.39992
-18.93422 9.64747 5.69402
-13.58127 9.22983 4.39992
-13.39666 11.08268 4.65874
-9.2571 9.85782 3.62347
-7.6963 9.92201 3.36465
-6.7284 10.60225 3.36465
-10.5245 20.65551 6.21165
-4.90794 13.63231 3.88228
-4.08367 15.90485 4.39992
-3.47539 21.94278 5.95284
-0.51579 16.41264 4.39992
0.84911 13.49628 3.62347
3.4754 21.94277 5.95284
3.5033 12.05844 3.36465
4.97813 12.57333 3.62347
5.70078 11.1884 3.36465
6.51517 9.58678 3.10583
7.38845 8.9311 3.10583
11.61121 11.61122 4.39992
9.67536 8.00416 3.36465
11.18458 7.60103 3.62347
15.23605 8.37609 4.65874
13.29724 5.75423 3.88228
11.94245 3.88033 3.36465
16.12988 3.07694 4.39992
13.46295 1.27262 3.62347
14.48889 0 3.88228
13.41633 -1.69487 3.62347
13.19728 -2.94995 3.62347
13.77975 -4.47731 3.88228
13.10994 -6.16906 3.88228
10.80837 -6.39205 3.36465
9.92201 -7.69629 3.36465
9.85782 -9.2571 3.62347
9.23557 -11.16388 3.88228
8.14396 -11.98348 3.88228
6.98007 -12.69671 3.88228
4.987 -11.52428 3.36465
4.17882 -12.8611 3.62347
2.94994 -13.19729 3.62347
1.27263 -13.46295 3.62347
0 -11.53514 3.30765
-0.90463 -9.56996 2.75637
-5.40367 -28.32705 8.26912
-2.97046 -9.14214 2.75637
-3.0541 -7.05762 2.2051
-6.85051 -11.58358 3.85892
-7.3452 -10.1098 3.58328
-5.08555 -5.76842 2.2051
-20.32116 -19.08284 7.99348
-9.33212 -6.78018 3.30765
-9.92878 -5.87186 3.30765
-15.65596 -7.36714 4.96147
-13.8464 -4.02275 4.13456
-22.66164 -4.32294 6.6153
-14.41181 -0.45291 4.13456
-14.39047 0.90537 4.13456
-30.38166 4.81198 8.82039
-13.71321 4.45569 4.13456
-12.35083 5.34468 3.85892
-19.85756 11.74373 6.6153
-10.88748 7.91022 3.85892
-10.8158 9.53541 4.13456
-19.08284 20.32116 7.99348
-8.47523 11.66516 4.13456
-7.33983 12.41098 4.13456
-11.0507 23.48394 7.44221
-4.15865 12.799 3.85892
-2.16147 11.33082 3.30765
-1.71879 18.18291 5.23711
0.36233 11.52945 3.30765
1.44574 11.44418 3.30765
3.77447 16.88601 4.96147
4.15865 12.799 3.85892
5.32071 11.30708 3.58328
8.31847 14.06577 4.68583
8.24829 10.63364 3.85892
8.55438 9.10948 3.58328
13.70001 12.07818 5.23711
10.1098 7.3452 3.58328
11.79304 6.48328 3.85892
15.87964 6.87174 4.96147
15.69259 4.55912 4.68583
14.16353 2.70184 4.13456
21.0539 1.99018 6.06402
14.41893 0 4.13456
12.44094 -1.17602 3.58328
30.21553 -5.76391 8.82039
12.799 -4.15865 3.85892
12.35083 -5.34468 3.85892
16.54796 -9.78644 5.51275
10.1098 -7.3452 3.58328
8.65264 -7.62832 3.30765
19.74087 -21.02188 8.26912
7.3452 -10.1098 3.58328
5.87186 -9.92878 3.30765
6.48997 -14.99744 4.68583
3.8616 -11.88478 3.58328
2.52172 -13.21929 3.85892
1.62833 -17.22592 4.96147
-0.36233 -11.52945 3.30765
-1.0843 -8.58314 2.48074
-2.86867 -11.17274 3.30765
-1.62808 -4.52216 1.37819
-2.04643 -4.34888 1.37819
-6.85051 -11.58358 3.85892
-5.08514 -6.99909 2.48074
-5.08555 -5.76842 2.2051
-19.62043 -18.42481 7.71784
-6.99909 -5.08514 2.48074
-9.92878 -5.87186 3.30765
-26.09327 -12.27856 8.26912
-11.88478 -3.8616 3.58328
-9.38111 -2.09693 2.75637
-28.61045 -3.61434 8.26912
-12.4964 0 3.58328
-14.35493 1.35694 4.13456
-18.76223 4.19386 5.51275
-15.54164 5.04979 4.68583
-11.30708 5.32071 3.58328
-14.89317 8.80779 4.96147
-9.87409 7.65913 3.58328
-8.40876 7.89635 3.30765
-12.07818 13.7 5.23711
-6.78018 9.33212 3.30765
-6.02019 10.95068 3.58328
-5.34468 12.35083 3.85892
-3.75457 12.92331 3.85892
-2.16147 11.33082 3.30765
-1.62833 17.22592 4.96147
0 14.41893 4.13456
1.56621 12.39786 3.58328
3.98416 17.82412 5.23711
4.45569 13.71321 4.13456
4.58116 10.58643 3.30765
12.50347 22.74372 7.44221
8.47523 11.66515 4.13456
6.35694 7.21053 2.75637
10.81579 9.53541 4.13456
11.13057 7.56433 3.85892
10.10832 5.5571 3.30765
16.08765 6.36955 4.96147
13.8464 4.02275 4.13456
11.33082 2.16147 3.30765
13.43111 0.84501 3.85892
13.45102 -0.42272 3.85892
9.53682 -1.20478 2.75637
17.82411 -3.98417 5.23711
11.88478 -3.8616 3.58328
11.30708 -5.32071 3.58328
12.41097 -7.33983 4.13456
9.11455 -7.06997 3.30765
7.0073 -6.58029 2.75637
11.44249 -12.97895 4.96147
5.65015 -7.77677 2.75637
5.87186 -9.92878 3.30765
11.86929 -25.22349 7.99348
2.97046 -9.14214 2.75637
2.09693 -9.38111 2.75637
3.49386 -27.65677 7.99348
0 -12.43196 3.80083
-1.07995 -11.42473 3.50846
-5.91339 -30.99907 9.64826
-2.36412 -7.276 2.33897
-1.89897 -4.38827 1.46186
-15.66391 -28.49255 9.94064
-5.05892 -6.963 2.63135
-5.05933 -5.73868 2.33897
-25.7933 -24.22152 10.81775
-7.73667 -5.62102 2.92372
-6.58505 -3.89439 2.33897
-25.95871 -12.21524 8.77115
-12.733 -4.1372 4.0932
-12.13256 -2.71195 3.80083
-27.51415 -3.47585 8.47878
-12.43196 0 3.80083
-12.37679 1.16995 3.80083
-28.18098 5.37581 8.77115
-12.733 4.1372 4.0932
-11.40949 4.93733 3.80083
-26.81652 14.7425 9.35589
-9.284 6.74522 3.50846
-8.60802 7.58899 3.50846
-20.94834 22.30772 9.35589
-7.86942 10.83134 4.0932
-5.84158 9.87758 3.50846
-7.59589 17.55306 5.84743
-3.84169 11.8235 3.80083
-2.32952 12.21176 3.80083
-2.24991 23.80151 7.30929
0.45057 14.33749 4.38557
1.55814 12.33393 3.80083
4.17223 18.66548 5.84743
3.88724 10.79723 3.50846
5.70045 12.11406 4.0932
6.14896 9.68922 3.50846
8.79188 11.33444 4.38557
8.51026 9.06251 3.80083
14.00006 11.58186 5.55506
10.28223 6.9878 3.80083
10.89421 5.98915 3.80083
16.67541 7.2161 5.55506
9.095 2.95514 2.92372
12.13256 2.71195 3.80083
18.08915 1.70993 5.55506
13.38827 0 4.0932
14.23146 -1.79785 4.38557
13.06583 -2.92057 4.0932
8.99769 -3.23936 2.92372
8.65291 -4.07174 2.92372
13.99324 -8.27558 4.97032
7.73667 -5.62102 2.92372
8.36539 -7.85563 3.50846
10.75107 -12.19469 4.97032
4.83771 -7.11847 2.63135
3.68563 -6.70413 2.33897
5.31712 -12.28714 4.0932
3.20161 -11.02 3.50846
1.61275 -8.45429 2.63135
1.34995 -14.28091 4.38557
-0.21027 -6.69083 2.0466
-1.19857 -9.48764 2.92372
-3.32953 -12.96765 4.0932
-2.26756 -6.29838 2.0466
-1.6287 -3.46116 1.16949
-4.86799 -8.23132 2.92372
-4.68901 -6.04503 2.33897
-3.27318 -3.48558 1.46186
-8.60802 -7.58899 3.50846
-6.963 -5.05892 2.63135
-7.54215 -4.14633 2.63135
-12.28714 -5.31712 4.0932
-11.93833 -3.46841 3.80083
-11.27239 -2.15032 3.50846
-14.28091 -1.34994 4.38557
-14.34457 0 4.38557
-11.42473 1.07995 3.50846
-22.54478 4.30065 7.01692
-12.733 4.1372 4.0932
-11.40949 4.93733 3.80083
-15.6395 9.24917 5.55506
-10.05767 7.30733 3.80083
-7.17335 6.32416 2.92372
-10.75107 12.19469 4.97032
-6.45027 9.49129 3.50846
-4.60703 8.38016 2.92372
-7.59589 17.55306 5.84743
-3.84169 11.8235 3.80083
-2.15032 11.27239 3.50846
-1.61994 17.13709 5.26269
0.42053 13.38166 4.0932
1.43828 11.38517 3.50846
3.56735 13.89391 4.38557
4.21117 11.69699 3.80083
4.8861 10.38348 3.50846
8.27557 13.99324 4.97032
6.74522 9.284 3.50846
7.58899 8.60802 3.50846
16.03367 15.05662 6.72455
9.284 6.74522 3.50846
10.05619 5.52844 3.50846
12.28714 5.31712 4.0932
9.18333 2.66801 2.92372
8.45429 1.61274 2.63135
14.28091 1.34994 4.38557
8.60674 0 2.63135
11.38517 -1.43828 3.50846
16.79893 -3.75502 5.26269
12.59676 -4.53511 4.0932
10.38349 -4.88609 3.50846
15.6395 -9.24918 5.55506
9.284 -6.74522 3.50846
10.04269 -8.85382 4.0932
17.67517 -18.82213 7.89403
5.62102 -7.73667 2.92372
5.84158 -9.87758 3.50846
12.21525 -25.95871 8.77115
2.36411 -7.276 2.33897
2.71195 -12.13256 3.80083
1.34995 -14.28091 4.38557
0 -11.41268 3.7082
-1.07279 -8.49201 2.78115
-2.69707 -12.06597 4.01722
-1.75054 -4.42135 1.54508
-22.45057 -40.83744 15.14183
-5.03115 -6.92479 2.78115
-5.6605 -6.42058 2.78115
-27.73161 -26.04172 12.36068
-7.69421 -5.59017 3.09017
-10.00101 -5.4981 3.7082
-16.58389 -7.17649 5.87132
-10.8541 -3.52671 3.7082
-11.13782 -2.4896 3.7082
-27.36316 -3.45677 8.96149
-12.36373 0 4.01722
-9.46836 0.89502 3.09017
-22.42105 4.27705 7.41641
-11.75861 3.8206 4.01722
-10.47404 4.53252 3.7082
-23.33568 12.8289 8.65248
-13.08015 9.50329 5.25329
-9.01277 8.46356 4.01722
-12.5789 14.26796 6.18034
-8.38525 11.54131 4.63525
-6.77778 11.4606 4.32624
-7.17649 16.58389 5.87132
-4.1145 12.66312 4.32624
-2.13852 11.21053 3.7082
-1.96905 20.83038 6.79837
0 14.26585 4.63525
1.07403 11.36203 3.7082
4.81167 25.22369 8.34346
4.1145 12.66312 4.32624
5.66917 12.04758 4.32624
9.19841 15.55367 5.87132
8.16073 10.52075 4.32624
9.76565 10.39935 4.63525
12.84116 11.32101 5.56231
11.0124 7.48402 4.32624
14.16809 7.78898 5.25329
15.03259 5.95182 5.25329
15.52599 4.51072 5.25329
21.60499 3.4219 7.10739
11.40705 0.35848 3.7082
13.2557 -1.25303 4.32624
23.35527 -4.45525 7.72542
11.75861 -3.82061 4.01722
12.21971 -5.28794 4.32624
15.00151 -8.24715 5.56231
9.01779 -6.99491 3.7082
10.39936 -9.76564 4.63525
7.57782 -9.76927 4.01722
6.62482 -10.43905 4.01722
9.31363 -19.79245 7.10739
2.35114 -7.23607 2.47214
2.13853 -11.21053 3.7082
1.07403 -11.36203 3.7082
-0.53746 -8.54262 2.78115
-3.27312 -20.66564 6.79837
-2.38803 -8.21964 2.78115
-1.88855 -4.36418 1.54508
-7.26191 -12.27921 4.63525
-5.03115 -6.92479 2.78115
-5.20834 -5.54632 2.47214
-8.56078 -7.54734 3.7082
-9.4392 -6.41488 3.7082
-11.66784 -6.41445 4.32624
-12.37978 -4.9015 4.32624
-12.78611 -3.71471 4.32624
-17.8476 -2.82678 5.87132
-14.25881 -0.4481 4.63525
-17.08524 1.07491 5.56231
-18.78695 2.97556 6.18034
-13.6994 3.98004 4.63525
-13.26405 5.25161 4.63525
-12.71096 6.47656 4.63525
-13.3722 9.08774 5.25329
-12.12777 10.69206 5.25329
-18.2292 19.41213 8.65248
-8.38525 11.54131 4.63525
-6.77778 11.4606 4.32624
-10.93338 23.23462 8.34346
-5.29007 16.28115 5.56231
-3.112 13.92228 4.63525
-3.33758 26.4196 8.65248
0 14.26585 4.63525
1.25303 13.2557 4.32624
3.52693 15.77858 5.25329
4.51022 12.52763 4.32624
6.88399 14.62921 5.25329
7.64402 12.04505 4.63525
10.49236 13.52668 5.56231
10.08748 10.08748 4.63525
12.7752 9.90945 5.25329
11.4606 6.77778 4.32624
15.48975 7.28893 5.56231
13.56763 4.40838 4.63525
17.75 3.38599 5.87132
13.30822 0.41823 4.32624
14.2377 -0.89576 4.63525
23.35527 -4.45525 7.72542
13.56763 -4.40839 4.63525
12.04758 -5.66916 4.32624
16.37228 -9.68255 6.18034
12.7752 -9.90945 5.25329
9.70607 -9.1146 4.32624
11.94995 -13.55456 5.87132
8.38525 -11.54131 4.63525
6.41445 -11.66784 4.32624
5.28794 -12.21971 4.32624
3.44937 -11.87282 4.01722
2.49495 -13.07895 4.32624
1.70055 -17.98988 5.87132
0 -12.29174 4.23239
-1.54056 -12.19482 4.23239
-3.71265 -16.60945 5.86023
-2.62963 -8.09317 2.93011
-2.62857 -6.07428 2.27898
-8.18224 -13.83541 5.53466
-5.00186 -6.88446 2.93011
-5.62754 -6.38319 2.93011
-22.05611 -20.71206 10.41818
-7.64941 -5.55762 3.25568
-8.13848 -4.81308 3.25568
-19.67721 -9.25939 7.48807
-12.58938 -4.09054 4.55795
-13.84121 -3.09388 4.88352
-15.94707 -2.01458 5.53466
-11.34062 0.35639 3.90682
-15.94707 2.01458 5.53466
-15.43558 4.48445 5.53466
-12.30769 4.87296 4.55795
-19.37665 9.8729 7.48807
-10.94828 7.44045 4.55795
-8.74241 7.23235 3.90682
-12.03449 12.03449 5.86023
-8.69272 11.20659 4.88352
-6.73831 11.39387 4.55795
-11.67488 24.81039 9.44148
-3.79836 11.69014 4.23239
-2.68136 11.99571 4.23239
-3.55515 28.14188 9.76704
0 14.18278 4.88352
1.24574 13.17851 4.55795
5.31517 27.86312 9.76704
3.79836 11.69014 4.23239
5.23357 11.1219 4.23239
7.21962 12.20771 4.88352
6.66914 9.17929 3.90682
19.41756 20.6776 9.76704
9.17929 6.66914 3.90682
9.76617 5.77569 3.90682
12.83296 6.03874 4.88352
11.80368 3.42929 4.23239
12.07402 2.30324 4.23239
14.11983 1.33472 4.88352
14.17578 -0.44549 4.88352
12.19482 -1.54056 4.23239
11.99571 -2.68137 4.23239
15.12354 -5.44481 5.53466
11.1219 -5.23357 4.23239
9.76617 -5.7757 3.90682
9.94422 -7.22491 4.23239
9.22017 -8.12867 4.23239
7.76702 -8.27104 3.90682
8.11321 -10.45949 4.55795
7.09287 -11.17659 4.55795
5.15108 -10.10956 3.90682
4.87296 -12.30769 4.55795
3.69308 -12.71166 4.55795
2.12607 -11.14525 3.90682
1.06778 -11.29587 3.90682
0 -9.45518 3.25568
-1.06777 -11.29587 3.90682
-1.77172 -9.28771 3.25568
-2.11033 -7.2638 2.60455
-1.87755 -4.33877 1.62784
-3.18855 -5.79995 2.27898
-4.25168 -6.25616 2.60455
-4.82157 -5.82828 2.60455
-2.67433 -2.67433 1.30227
-6.72396 -5.21563 2.93011
-9.57993 -6.07961 3.90682
-10.95202 -5.58033 4.23239
-11.42857 -4.52489 4.23239
-10.8957 -3.1655 3.90682
-11.14525 -2.12607 3.90682
-12.23719 -1.15675 4.23239
-13.23726 0 4.55795
-13.17851 1.24573 4.55795
-13.00279 2.48041 4.55795
-13.48862 4.38272 4.88352
-13.01631 5.63266 4.88352
-11.39387 6.73831 4.55795
-10.70917 7.78067 4.55795
-7.09244 6.25283 3.25568
-6.47252 6.89253 3.25568
-7.53369 9.71238 4.23239
-7.09288 11.17659 4.55795
-4.29256 8.42463 3.25568
-4.52489 11.42857 4.23239
-2.35141 9.15813 3.25568
-1.77494 11.20653 3.90682
-0.7718 12.26748 4.23239
0.41579 13.23073 4.55795
1.92285 12.14041 4.23239
2.82169 10.98976 3.90682
3.84339 10.67544 3.90682
4.83099 10.26637 3.90682
6.73831 11.39387 4.55795
7.78067 10.70917 4.55795
9.06153 9.64954 4.55795
9.92941 8.75396 4.55795
11.47411 8.33642 4.88352
12.20771 7.21962 4.88352
11.97743 5.63615 4.55795
13.3443 4.80425 4.88352
13.7372 3.52711 4.88352
14.00816 2.21868 4.88352
13.23073 0.41579 4.55795
16.0421 -1.00928 5.53466
15.87592 -2.5145 5.53466
13.61963 -3.95686 4.88352
12.30769 -4.87296 4.55795
11.79448 -6.00959 4.55795
11.7303 -7.9719 4.88352
12.38508 -10.24584 5.53466
11.65054 -12.40656 5.86023
10.43127 -13.44791 5.86023
7.21962 -12.20771 4.88352
6.8439 -14.54402 5.53466
4.80425 -13.3443 4.88352
3.9974 -15.56882 5.53466
1.54056 -12.19482 4.23239
0.44549 -14.17578 4.88352
-0.82605 -13.12974 4.78828
-2.49901 -15.7781 5.81434
-2.62166 -9.02381 3.4202
-3.11332 -7.86334 3.07818
-10.66529 -20.93181 8.5505
-5.28186 -7.77202 3.4202
-5.59287 -6.34386 3.07818
-11.64511 -10.93549 5.81434
-7.60227 -5.52337 3.4202
-23.05685 -12.67561 9.57656
-13.40551 -4.35571 5.1303
-13.75593 -3.07481 5.1303
-23.38806 -2.21082 8.5505
-14.09539 0 5.1303
-13.98424 1.76662 5.1303
-22.92654 5.12469 8.5505
-15.19291 4.93648 5.81434
-12.75389 6.00152 5.1303
-19.41199 11.48022 8.20848
-13.68409 9.94208 6.15636
-11.64511 10.93549 5.81434
-11.80717 13.3926 6.49838
-7.92278 11.65802 5.1303
-8.14861 14.82226 6.15636
-8.21033 18.97296 7.52444
-4.35572 13.40551 5.1303
-3.16946 16.61487 6.15636
-1.68023 17.77492 6.49838
0.44275 14.08843 5.1303
1.76662 13.98424 5.1303
5.14122 20.02375 7.52444
4.45633 12.37794 4.78828
6.00153 12.75389 5.1303
9.56685 16.17666 6.8404
7.73273 10.64318 4.78828
9.64896 10.2751 5.1303
11.98286 10.56431 5.81434
14.28136 9.06323 6.15636
11.72181 5.97256 4.78828
13.10556 5.18886 5.1303
17.14524 4.98115 6.49838
15.69182 2.99338 5.81434
15.90388 1.50336 5.81434
14.09539 0 5.1303
13.98424 -1.76662 5.1303
11.00474 -2.45986 4.10424
11.4938 -4.13802 4.44626
14.45441 -6.80172 5.81434
13.48795 -8.55972 5.81434
10.39504 -8.06322 4.78828
11.64511 -10.93548 5.81434
7.78678 -9.41259 4.44626
7.3946 -10.88082 4.78828
6.33781 -11.52843 4.78828
4.15109 -10.48445 4.10424
3.67032 -12.63333 4.78828
2.058 -12.99373 4.78828
0.82606 -13.12974 4.78828
-0.82605 -13.12974 4.78828
-1.764 -11.13748 4.10424
-1.86954 -7.28136 2.73616
-2.42147 -6.11593 2.39414
-3.41289 -6.69818 2.73616
-4.53161 -7.14068 3.07818
-4.03161 -5.19752 2.39414
-5.14611 -5.48005 2.73616
-6.51641 -5.39084 3.07818
-7.77202 -5.28186 3.4202
-11.52843 -6.33781 4.78828
-12.0737 -5.22476 4.78828
-12.51181 -4.06533 4.78828
-15.69182 -2.99337 5.81434
-15.90388 -1.50336 5.81434
-15.97478 0 5.81434
-15.90388 1.50336 5.81434
-13.75593 3.07482 5.1303
-13.40551 4.35572 5.1303
-14.66092 6.34435 5.81434
-11.32366 6.69679 4.78828
-12.92386 9.38974 5.81434
-8.90508 8.36243 4.44626
-9.32145 10.57311 5.1303
-7.73272 10.64318 4.78828
-6.7905 12.35188 5.1303
-6.34435 14.66092 5.81434
-4.06533 12.51181 4.78828
-2.86983 12.83887 4.78828
-1.14963 12.16179 4.44626
0 14.09539 5.1303
1.3265 14.03283 5.1303
5.28242 27.69144 10.2606
4.35571 13.40551 5.1303
6.34435 14.66092 5.81434
11.31751 20.58647 8.5505
9.38974 12.92386 5.81434
9.0057 9.59009 4.78828
11.98286 10.56431 5.81434
10.88082 7.3946 4.78828
10.70497 5.88511 4.44626
14.85297 5.8807 5.81434
15.34047 4.45682 5.81434
16.70622 2.64601 6.15636
15.94325 1.00306 5.81434
13.12974 -0.82605 4.78828
17.63435 -2.79301 6.49838
13.65256 -3.50538 5.1303
12.23186 -4.84294 4.78828
11.72181 -5.97256 4.78828
10.88082 -7.3946 4.78828
10.13664 -8.38576 4.78828
11.29587 -11.29587 5.81434
10.78169 -13.03282 6.15636
9.50734 -13.98963 6.15636
7.69591 -13.9988 5.81434
5.18886 -13.10556 5.1303
3.40816 -11.73095 4.44626
2.94 -18.56247 6.8404
0.44274 -14.08843 5.1303
-0.76206 -12.1126 4.65878
-3.94319 -24.89634 9.67594
-3.64645 -12.55116 5.01715
-3.09306 -7.81219 3.22531
-14.83428 -29.11392 12.54288
-7.3465 -10.81005 5.01715
-7.14104 -8.63203 4.30042
-28.38606 -28.38606 15.40982
-9.58975 -7.43857 4.65878
-11.25001 -6.65324 5.01715
-19.70635 -8.5277 8.24246
-12.43043 -4.03889 5.01715
-16.50679 -3.14884 6.45062
-21.37706 -2.02073 8.24246
-17.72927 0.55716 6.80899
-15.74572 1.98915 6.09226
-18.22193 4.07309 7.16736
-15.98198 5.19286 6.45062
-11.8262 5.56499 5.01715
-16.07144 9.50462 7.16736
-14.75347 11.44396 7.16736
-12.24992 11.50344 6.45062
-12.34776 14.00578 7.16736
-9.32866 12.8398 6.09226
-7.64585 13.90775 6.09226
-7.04462 16.27916 6.80899
-3.38599 11.65465 4.65878
-2.4491 12.83862 5.01715
-1.75716 18.58874 7.16736
0 13.07013 5.01715
1.31787 13.94156 5.37552
4.19845 22.00906 8.60083
4.32738 13.31832 5.37552
4.44923 10.28157 4.30042
9.50462 16.07144 7.16736
8.23117 11.32923 5.37552
8.30804 8.84716 4.65878
15.40636 13.58253 7.8841
13.12648 8.92075 6.09226
22.08877 12.14341 9.67594
14.93259 5.37607 6.09226
12.6595 3.25041 5.01715
23.15547 2.92522 8.9592
14.00371 0 5.37552
13.89328 -1.75512 5.37552
17.31084 -3.86944 6.80899
16.68937 -6.00854 6.80899
12.67093 -5.96248 5.37552
18.48215 -10.93032 8.24246
13.59508 -9.87741 6.45062
12.6052 -11.11298 6.45062
10.86436 -11.56936 6.09226
7.13368 -9.81867 4.65878
6.65324 -11.25001 5.01715
7.41539 -17.13596 7.16736
3.46191 -10.65465 4.30042
2.09923 -11.00453 4.30042
1.14215 -12.08268 4.65878
-0.38122 -12.13056 4.65878
-1.4041 -11.11463 4.30042
-2.64751 -11.84426 4.65878
-2.52991 -7.0271 2.86694
-8.47673 -16.63652 7.16736
-4.72275 -6.94932 3.22531
-5.95086 -7.19336 3.58368
-13.20282 -13.20282 7.16736
-10.32743 -8.01077 5.01715
-9.45898 -6.00285 4.30042
-19.132 -9.74824 8.24246
-12.29743 -4.42735 5.01715
-12.6595 -3.25041 5.01715
-18.44173 -2.92088 7.16736
-15.86304 -0.49852 6.09226
-13.97607 0.8793 5.37552
-22.00906 4.19845 8.60083
-13.31832 4.32738 5.37552
-12.85197 5.56154 5.37552
-22.08877 12.1434 9.67594
-10.57395 7.68243 5.01715
-10.50434 9.26082 5.37552
-15.97699 17.01377 8.9592
-9.87741 13.59508 6.45062
-6.65323 11.25001 5.01715
-10.73247 22.80768 9.67594
-3.7504 11.54254 4.65878
-2.44385 10.93316 4.30042
-2.10616 16.67194 6.45062
0 12.13655 4.65878
1.17009 9.26219 3.58368
3.05481 13.66645 5.37552
4.03889 12.43043 5.01715
5.16749 10.98147 4.65878
8.07893 13.66072 6.09226
8.01077 10.32743 5.01715
8.30804 8.84716 4.65878
12.94805 10.71156 6.45062
10.0379 6.82175 4.65878
11.45344 6.29658 5.01715
13.02032 5.1551 5.37552
13.44767 3.90691 5.37552
11.92157 2.27416 4.65878
17.65931 1.6693 6.80899
15.87087 0 6.09226
12.96706 -1.63812 5.01715
13.66645 -3.05482 5.37552
13.17582 -4.74358 5.37552
10.98148 -5.16749 4.65878
11.58219 -7.87125 5.37552
12.94805 -10.71156 6.45062
18.53332 -19.73597 10.39267
7.13368 -9.81867 4.65878
6.178 -10.44643 4.65878
10.73249 -22.80767 9.67594
3.7504 -11.54254 4.65878
2.09923 -11.00453 4.30042
1.6693 -17.6593 6.80899
-0.29124 -9.26726 3.74607
-1.39448 -11.03847 4.49528
-3.91988 -15.26693 6.36831
-2.82665 -7.85133 3.37146
-2.76343 -5.87259 2.62225
-6.13567 -10.37486 4.86988
-5.44985 -7.50107 3.74607
-4.90526 -5.56393 2.99685
-18.24897 -17.13693 10.11438
-7.50108 -5.44985 3.74607
-7.1826 -4.24778 3.37146
-24.32929 -11.4485 10.86359
-13.22706 -4.29773 5.6191
-12.66796 -2.83162 5.24449
-18.46138 -1.74511 7.49213
-16.68931 0 6.74292
-15.63784 1.97552 6.36831
-17.19223 3.84292 7.11752
-12.21317 4.39701 5.24449
-11.74517 5.52686 5.24449
-17.55746 10.38345 8.24134
-12.75183 9.26475 6.36831
-11.82335 10.42368 6.36831
-17.77163 18.92486 10.48898
-9.80973 13.50194 6.74292
-5.6637 9.57679 4.49528
-6.99635 16.16762 7.11752
-3.7247 11.46346 4.86988
-2.25858 11.83989 4.86988
-1.65786 17.53831 7.11752
0 12.98057 5.24449
1.7431 13.79809 5.6191
3.03388 13.57281 5.6191
4.71108 13.08554 5.6191
7.89552 16.77882 7.49213
7.29616 10.73598 5.24449
7.68312 9.2873 4.86988
13.11236 13.11236 7.49213
10.98929 8.52416 5.6191
9.39417 5.96172 4.49528
16.52254 8.41865 7.49213
13.22707 4.29773 5.6191
12.66796 2.83163 5.24449
21.23059 2.00688 8.61595
12.05339 0 4.86988
11.95835 -1.51069 4.86988
15.38252 -3.43841 6.36831
12.93111 -5.11979 5.6191
16.52254 -8.41866 7.49213
9.96913 -6.77501 4.86988
10.0017 -8.27413 5.24449
15.23283 -16.22131 8.99056
8.17478 -11.25161 5.6191
6.13567 -10.37486 4.86988
9.8694 -20.97352 9.36516
4.29773 -13.22706 5.6191
2.02259 -9.04854 3.74607
1.57061 -16.61524 6.74292
0 -12.05339 4.86988
-1.16207 -9.19873 3.74607
-2.83162 -12.66796 5.24449
-2.82665 -7.85133 3.37146
-1.97388 -4.19471 1.87303
-4.9681 -7.82847 3.74607
-5.1145 -6.59357 3.37146
-4.44291 -4.73122 2.62225
-9.04138 -7.97105 4.86988
-9.96912 -6.77501 4.86988
-10.56247 -5.80677 4.86988
-17.01855 -7.36458 7.49213
-14.99067 -4.87076 6.36831
-11.83989 -2.25858 4.86988
-17.53831 -1.65786 7.11752
-15.75435 0.4951 6.36831
-13.79809 1.7431 5.6191
-17.19223 3.84292 7.11752
-13.08554 4.71108 5.6191
-15.10094 7.10596 6.74292
-13.3084 8.44577 6.36831
-12.45452 9.66072 6.36831
-8.78654 8.25111 4.86988
-12.26316 13.90982 7.49213
-7.62979 10.50151 5.24449
-5.80676 10.56247 4.86988
-5.52344 12.76391 5.6191
-4.65617 16.02664 6.74292
-2.43232 12.75065 5.24449
-0.98971 15.73102 6.36831
0.43685 13.90089 5.6191
1.51069 11.95835 4.86988
3.84292 17.19223 7.11752
4.01122 12.34526 5.24449
5.92164 12.58411 5.6191
8.96752 15.16326 7.11752
9.26475 12.75183 6.36831
8.58421 9.73687 5.24449
18.92486 17.77163 10.48898
11.25161 8.17477 5.6191
9.57679 5.6637 4.49528
24.32929 11.4485 10.86359
12.34526 4.01121 5.24449
15.38252 3.4384 6.36831
26.67631 3.37 10.86359
15.76213 0 6.36831
16.61524 -1.5706 6.74292
16.3937 -3.12726 6.74292
14.83028 -5.33922 6.36831
20.13459 -9.47461 8.99056
14.57026 -9.90193 7.11752
9.28729 -7.68312 4.86988
12.45674 -12.45674 7.11752
8.52416 -10.98928 5.6191
6.45853 -10.17702 4.86988
7.99772 -15.69641 7.11752
3.7247 -11.46346 4.86988
2.62936 -11.76311 4.86988
3.25379 -25.75644 10.48898
0 -9.20505 3.90731
-1.12615 -11.91346 5.0795
-9.31421 -48.82681 21.09948
-2.56007 -7.87907 3.51658
-2.74352 -5.83028 2.73512
-6.09148 -10.30012 5.0795
-5.64184 -7.27342 3.90731
-4.4109 -4.69713 2.73512
-10.35721 -9.13111 5.86097
-8.93645 -6.49271 4.68877
-11.29302 -6.20839 5.47024
-16.05115 -6.94595 7.42389
-15.02723 -4.36582 6.64243
-15.3714 -2.93225 6.64243
-21.12983 -1.32938 8.98682
-13.80076 0.43371 5.86097
-15.52519 1.96129 6.64243
-13.47504 3.01203 5.86097
-15.58954 5.61258 7.03316
-12.49347 5.87898 5.86097
-15.54416 9.86462 7.81462
-8.7281 6.77021 4.68877
-11.40733 10.71219 6.64243
-14.00104 15.88106 8.98682
-7.57483 10.42586 5.47024
-7.02863 11.88476 5.86097
-7.05477 14.99216 7.03316
-4.26678 13.13178 5.86097
-2.00802 8.98336 3.90731
-2.88425 22.83116 9.76828
0 11.96656 5.0795
1.12615 11.91345 5.0795
4.82958 25.3176 10.94047
4.26677 13.13178 5.86097
5.48705 11.66057 5.47024
10.77722 18.2233 8.98682
7.03377 9.68115 5.0795
8.52237 9.66673 5.47024
16.77548 15.75322 9.76828
11.17056 8.11589 5.86097
13.46939 7.96577 6.64243
20.27514 8.77384 9.37755
12.25633 3.98232 5.47024
13.563 2.58728 5.86097
17.41197 1.64592 7.42389
12.88071 -0.40479 5.47024
10.95896 -1.38443 4.68877
17.06838 -3.81525 7.42389
12.1252 -4.36533 5.47024
11.66057 -5.48704 5.47024
18.22329 -10.77723 8.98682
12.65997 -9.19801 6.64243
8.97625 -7.91363 5.0795
15.1231 -16.10446 9.37755
7.57483 -10.42586 5.47024
7.02863 -11.88476 5.86097
9.79831 -20.82244 9.76828
4.26677 -13.13178 5.86097
2.61042 -11.67837 5.0795
2.6535 -21.00467 8.98682
0 -12.88707 5.47024
-1.03953 -10.99704 4.68877
-4.65711 -24.4134 10.54974
-2.84452 -8.75452 3.90731
-2.55904 -5.91358 2.73512
-6.56005 -11.09244 5.47024
-3.78741 -5.21293 2.73512
-5.04103 -5.36815 3.12585
-10.35721 -9.13111 5.86097
-9.13598 -6.20881 4.68877
-9.67973 -5.32148 4.68877
-14.36156 -6.2148 6.64243
-11.49141 -3.33857 5.0795
-15.3714 -2.93225 6.64243
-18.32839 -1.73254 7.81462
-13.80076 0.43371 5.86097
-11.8722 1.49981 5.0795
-22.4584 5.02005 9.76828
-15.75814 5.12013 7.03316
-12.49347 5.87898 5.86097
-14.26171 8.43435 7.03316
-10.91012 8.46276 5.86097
-12.74936 11.97245 7.42389
-11.73504 14.18522 7.81462
-8.79581 12.94264 6.64243
-6.26851 12.30264 5.86097
-4.67715 12.99128 5.86097
-2.97596 11.59061 5.0795
-3.45597 21.82013 9.37755
0 11.96656 5.0795
1.21278 12.82987 5.47024
4.6571 24.4134 10.54974
3.69787 11.38088 5.0795
5.09512 10.82767 5.0795
7.02862 11.88476 5.86097
7.89857 10.18278 5.47024
10.71219 11.40732 6.64243
12.7667 10.56154 7.03316
11.41997 7.76101 5.86097
11.29302 6.20839 5.47024
18.58554 8.04269 8.59608
12.37537 3.59538 5.47024
15.3714 2.93225 6.64243
17.45508 1.09818 7.42389
15.64086 -0.49153 6.64243
13.6987 -1.73054 5.86097
17.96672 -4.01605 7.81462
16.63359 -5.40458 7.42389
11.66057 -5.48704 5.47024
13.98974 -8.87816 7.03316
10.18278 -7.89857 5.47024
8.72325 -8.19167 5.0795
10.95734 -12.42865 7.03316
7.24361 -10.65864 5.47024
7.98222 -14.5196 7.03316
5.30077 -14.72345 6.64243
2.97597 -11.59061 5.0795
2.73596 -17.27427 7.42389
0.37588 -11.96066 5.0795
-1.11764 -11.82339 5.28758
-5.82017 -30.51038 13.82904
-2.82301 -8.68833 4.06737
-2.9025 -6.70728 3.25389
-14.96353 -27.21856 13.82904
-4.83272 -6.65166 3.66063
-4.83311 -5.48208 3.25389
-19.31243 -18.13558 11.79536
-9.60796 -6.98059 5.28758
-9.43592 -5.58039 4.88084
-14.05221 -6.61247 6.91452
-10.52726 -3.05845 4.88084
-22.65855 -2.86244 10.16842
-13.70318 0 6.10105
-11.82338 1.11764 5.28758
-28.71565 5.4778 13.01557
-15.639 5.08142 7.32126
-12.39901 5.83453 6.10105
-15.72654 9.30065 8.13473
-12.27132 9.51861 6.91452
-11.32108 10.6312 6.91452
-12.08277 13.70521 8.13473
-9.12846 12.56426 6.91452
-6.04542 10.22225 5.28758
-9.72421 20.66502 10.16842
-3.95222 12.16367 5.69431
-2.56772 13.46046 6.10105
-1.5475 16.37084 7.32126
0.37304 11.87023 5.28758
1.37397 10.8761 4.88084
4.3166 16.81205 7.728
4.64178 12.89306 6.10105
6.61247 14.05221 6.91452
10.23071 17.29919 8.94821
6.98059 9.60796 5.28758
8.45794 9.59365 5.69431
21.31027 20.01168 13.01557
10.34703 7.51756 5.69431
11.00858 6.51045 5.69431
20.66501 9.72422 10.16842
14.77017 4.79911 6.91452
13.37316 2.98926 6.10105
27.19025 3.43493 12.2021
16.44382 0 7.32126
13.64237 -1.28958 6.10105
25.12619 -4.79307 11.38863
15.639 -5.08142 7.32126
15.9298 -6.89344 7.728
18.87185 -11.16078 9.76168
13.30332 -9.66544 7.32126
11.98703 -11.25657 7.32126
12.08277 -13.70521 8.13473
7.18884 -10.57806 5.69431
6.60156 -12.00819 6.10105
6.72597 -16.98786 8.13473
3.56819 -12.28181 5.69431
2.39654 -12.5631 5.69431
1.03252 -16.41137 7.32126
-0.40173 -12.78332 5.69431
-1.71746 -13.59513 6.10105
-3.58711 -16.0478 7.32126
-3.38761 -10.426 4.88084
-2.9025 -6.70728 3.25389
-14.08332 -25.61747 13.01557
-4.29575 -5.91259 3.25389
-5.43725 -6.16734 3.66063
-19.31243 -18.13558 11.79536
-9.60796 -6.98059 5.28758
-10.22225 -6.04542 5.28758
-20.66501 -9.72422 10.16842
-10.426 -3.38761 4.88084
-11.66573 -2.22536 5.28758
-18.18982 -1.71944 8.13473
-11.87023 0.37304 5.28758
-13.59513 1.71746 6.10105
-17.83088 3.98568 8.13473
-14.77017 4.79912 6.91452
-10.74581 5.05659 5.28758
-14.94021 8.83561 7.728
-10.10579 7.83886 5.69431
-11.32108 10.6312 6.91452
-13.89519 15.76099 9.35494
-8.05453 11.08611 6.10105
-6.97549 11.7949 6.10105
-9.72421 20.66502 10.16842
-4.23452 13.0325 6.10105
-2.59069 11.59008 5.28758
-3.09144 24.47123 10.98189
0 13.70318 6.10105
1.28958 13.64237 6.10105
4.79307 25.12619 11.38863
4.79912 14.77017 6.91452
5.83453 12.39901 6.10105
9.30064 15.72654 8.13473
7.83885 10.1058 5.69431
8.12974 8.6573 5.28758
15.76099 13.89519 9.35494
11.33363 7.70233 6.10105
19.5354 9.95378 9.76168
15.47167 5.57015 7.32126
12.38783 3.18065 5.69431
29.00294 3.66392 13.01557
17.35736 0 7.728
13.59513 -1.71746 6.10105
16.93934 -3.7864 7.728
12.03352 -4.33233 5.69431
11.57241 -5.44556 5.69431
18.08552 -10.69575 9.35494
12.56425 -9.12847 6.91452
9.32325 -8.75511 5.69431
13.89519 -15.76099 9.35494
8.05453 -11.08611 6.10105
6.60156 -12.00819 6.10105
7.98188 -18.44503 8.94821
3.31332 -11.40454 5.28758
2.39654 -12.5631 5.69431
1.63348 -17.28033 7.728
0 -13.59462 6.33927
-1.27937 -13.53428 6.33927
-5.09475 -26.70764 12.67855
-2.80065 -8.6195 4.22618
-2.51957 -5.82238 2.95833
-6.11264 -11.11885 5.91666
-3.88838 -5.01287 2.95833
-16.75108 -17.83809 11.41069
-9.30961 -7.22127 5.49404
-9.94787 -6.31311 5.49404
-16.15052 -8.2291 8.45237
-12.92925 -4.20097 6.33927
-12.38273 -2.76787 5.91666
-22.55714 -2.13228 10.56546
-13.59462 0 6.33927
-13.53428 1.27936 6.33927
-20.34306 4.54722 9.72022
-15.5151 5.04116 7.60713
-11.48073 5.40242 5.91666
-14.5392 9.22685 8.02975
-10.74185 8.33224 6.33927
-12.17627 12.17627 8.02975
-9.4432 12.1741 7.18451
-7.28436 11.47831 6.33927
-10.28638 20.18815 10.56546
-4.20097 12.92925 6.33927
-2.76787 12.38273 5.91666
-2.72618 21.57987 10.14284
0 11.782 5.49404
1.27937 13.53428 6.33927
4.24562 22.25636 10.56546
3.9209 12.0673 5.91666
6.11895 14.14006 7.18451
8.29572 15.08987 8.02975
9.99868 12.89023 7.60713
14.88985 15.85608 10.14284
10.26506 7.458 5.91666
11.70146 6.92022 6.33927
27.88176 13.12017 14.36902
11.20535 3.64083 5.49404
12.46356 2.37755 5.91666
17.14342 1.62053 8.02975
12.68831 0 5.91666
12.58826 -1.59026 5.91666
17.68962 -3.95411 8.45237
12.0673 -3.9209 5.91666
13.94088 -6.56008 7.18451
14.82184 -8.76562 8.02975
12.1741 -9.4432 7.18451
9.91005 -9.30615 6.33927
11.38769 -12.9168 8.02975
9.05614 -12.46471 7.18451
7.42249 -13.50146 7.18451
6.83883 -15.80359 8.02975
3.28707 -11.31418 5.49404
2.03791 -10.68305 5.07142
1.62054 -17.14342 8.02975
-0.37008 -11.77619 5.49404
-1.47668 -11.6891 5.49404
-3.15545 -12.28968 5.91666
-2.76301 -7.67455 3.80356
-1.92944 -4.10026 2.11309
-5.99753 -10.14126 5.49404
-4.99934 -6.44511 3.80356
-4.96328 -5.28536 3.38095
-8.83781 -7.79158 5.49404
-8.99507 -6.11305 5.07142
-10.32465 -5.67602 5.49404
-16.85327 -6.67268 8.45237
-13.05482 -3.79278 6.33927
-16.02458 -3.05685 7.60713
-21.65485 -2.04699 10.14284
-17.21985 0 8.02975
-15.33885 1.44995 7.18451
-25.81738 4.92493 12.25593
-14.65315 4.7611 7.18451
-14.14006 6.11895 7.18451
-17.16214 10.14966 9.2976
-12.46471 9.05615 7.18451
-11.23139 10.54698 7.18451
-11.38769 12.91679 8.02975
-7.64131 11.24384 6.33927
-7.42249 13.50146 7.18451
-6.83883 15.80359 8.02975
-3.9209 12.0673 5.91666
-2.37755 12.46356 5.91666
-1.62053 17.14342 8.02975
0.48395 15.39963 7.18451
1.36308 10.78994 5.07142
4.54721 20.34306 9.72022
3.9209 12.0673 5.91666
6.56008 13.94088 7.18451
8.76561 14.82185 8.02975
7.77675 10.02573 5.91666
9.30616 9.91005 6.33927
13.26812 10.97635 8.02975
14.2422 9.67899 8.02975
16.15053 8.2291 8.45237
12.79091 4.60501 6.33927
16.67885 4.2824 8.02975
17.90299 2.83556 8.45237
13.58791 0.42702 6.33927
13.56779 -0.85361 6.33927
22.37874 -3.54445 10.56546
13.05482 -3.79277 6.33927
14.32528 -5.67178 7.18451
18.5731 -9.46347 9.72022
13.49261 -9.16957 7.60713
11.55714 -10.18898 7.18451
18.61231 -19.82009 12.67855
7.99072 -10.99827 6.33927
6.45887 -10.92136 5.91666
9.64719 -20.50129 10.56546
3.64084 -11.20535 5.49404
2.54738 -13.35382 6.33927
1.87641 -19.85028 9.2976
-0.36701 -11.67856 5.69882
-1.46443 -11.59219 5.69882
-5.88198 -26.31444 13.15113
-2.43564 -6.76526 3.50697
-3.0615 -6.50602 3.50697
-6.86285 -11.60445 6.57557
-7.1614 -9.23243 5.69882
-32.60914 -34.72521 23.23367
-8.72568 -6.33957 5.26045
-10.83082 -6.40533 6.1372
-22.27155 -9.63776 11.83602
-12.82206 -4.16614 6.57557
-13.15722 -2.94099 6.57557
-28.53461 -3.60476 14.02788
-13.48191 0 6.57557
-11.59219 1.46443 5.69882
-17.54296 3.92132 8.76742
-11.83921 4.26238 6.1372
-17.89157 8.41913 9.64417
-11.15062 7.57796 6.57557
-11.77306 9.73952 7.45231
-11.43978 11.43978 7.89068
-8.26316 10.6528 6.57557
-6.86285 11.60445 6.57557
-8.80182 18.70482 10.08254
-3.61065 11.11245 5.69882
-2.54886 11.40293 5.69882
-1.6071 17.0013 8.32905
0 10.78553 5.26045
1.68723 10.65274 5.26045
4.26284 14.67281 7.45231
4.6404 10.72334 5.69882
10.82493 19.69048 10.95928
7.39617 10.17995 6.1372
5.94383 6.74195 4.38371
16.37981 15.38167 10.95928
9.45282 6.86787 5.69882
10.83082 6.40532 6.1372
23.58434 11.09795 12.71276
15.38647 4.99936 7.89068
13.15722 2.94099 6.57557
24.07608 3.04152 11.83602
15.2795 0 7.45231
12.52727 -1.18418 6.1372
26.48622 -5.05251 13.15113
14.53167 -4.72163 7.45231
12.1988 -5.74031 6.57557
17.79348 -10.52304 10.08254
9.94261 -7.71228 6.1372
11.13828 -10.45953 7.45231
8.26316 -10.6528 6.57557
7.22396 -11.38315 6.57557
5.71262 -11.21164 6.1372
3.95793 -10.99355 5.69882
2.74492 -12.28007 6.1372
3.15416 -24.96779 12.27439
0 -10.78553 5.26045
-1.01501 -10.73766 5.26045
-6.23144 -32.66633 16.21973
-2.77743 -8.54804 4.38371
-2.49868 -5.77411 3.0686
-11.69093 -21.26572 11.83602
-4.22638 -5.81712 3.50697
-4.16068 -4.71937 3.0686
-8.76454 -7.72698 5.69882
-6.69037 -4.54677 3.94534
-9.45143 -5.19597 5.26045
-14.8477 -6.42517 7.89068
-11.11245 -3.61065 5.69882
-12.36023 -2.35784 6.1372
-20.58052 -1.94543 10.08254
-11.68432 0 5.69882
-13.3756 1.68973 6.57557
-15.67002 4.02338 7.89068
-12.68487 4.56683 6.57557
-12.1988 5.74032 6.57557
-12.63737 8.58835 7.45231
-10.11293 8.91575 6.57557
-16.6122 17.6902 11.83602
-7.39617 10.17996 6.1372
-6.06196 11.02667 6.1372
-6.06822 14.02283 7.45231
-3.8884 11.96725 6.1372
-2.54886 11.40293 5.69882
-1.6071 17.0013 8.32905
0 12.58312 6.1372
1.46443 11.59219 5.69882
3.33312 14.91152 7.45231
3.95792 10.99356 5.69882
5.74032 12.19879 6.57557
8.18716 12.90091 7.45231
7.71228 9.94261 6.1372
9.53315 9.53315 6.57557
9.94261 7.71228 6.1372
7.7363 4.57523 4.38371
17.89157 8.41914 9.64417
15.38647 4.99936 7.89068
11.40293 2.54886 5.69882
17.04339 1.07228 8.32905
15.27196 -0.47994 7.45231
17.75457 -2.81205 8.76742
15.53591 -4.51359 7.89068
15.04219 -5.95563 7.89068
16.01662 -8.16088 8.76742
13.38075 -9.09355 7.89068
10.38799 -8.59369 6.57557
15.38167 -16.37981 10.95928
9.50936 -13.08851 7.89068
6.86285 -11.60445 6.57557
8.20994 -18.97206 10.08254
3.61065 -11.11245 5.69882
2.35785 -12.36023 6.1372
1.6071 -17.0013 8.32905
0 -12.47409 6.35587
-1.17392 -12.41873 6.35587
-3.1722 -16.62926 8.62582
-3.01818 -8.38331 4.5399
-11.00179 -23.38 13.16572
-8.51394 -12.52788 7.71784
-4.54359 -5.49226 3.63192
-22.73305 -21.34776 15.88966
-9.37091 -6.80837 5.90188
-9.97005 -5.89627 5.90188
-15.31793 -7.20807 8.62582
-12.83442 -3.72874 6.80986
-14.87881 -2.83829 7.71784
-17.81134 -0.55974 9.07981
-16.89572 1.06299 8.62582
-29.75763 5.67657 15.43567
-15.25316 4.95605 8.17183
-17.46564 8.89919 9.98779
-13.26481 9.01476 8.17183
-12.03037 10.6062 8.17183
-20.73782 22.08354 15.43567
-8.90325 12.25427 7.71784
-6.43868 11.71192 6.80986
-6.72337 15.53678 8.62582
-4.47449 15.4013 8.17183
-3.00524 15.75404 8.17183
-1.28677 20.45271 10.44178
0.50377 16.0302 8.17183
2.50892 15.84066 8.17183
4.47449 15.4013 8.17183
4.95406 11.44816 6.35587
10.73114 19.51987 11.34976
8.19156 10.5605 6.80986
12.19872 12.99031 9.07981
12.25427 8.90325 7.71784
13.03776 7.7105 7.71784
19.62541 8.49268 10.89577
12.71096 4.13004 6.80986
15.65187 3.49861 8.17183
17.67961 2.23346 9.07981
16.0302 -0.50377 8.17183
21.21554 -2.68014 10.89577
14.40576 -4.68072 7.71784
12.26588 -5.30792 6.80986
17.63931 -10.43187 10.44178
12.25427 -8.90325 7.71784
11.36202 -10.01696 7.71784
19.51795 -20.7845 14.52769
7.85581 -10.81259 6.80986
8.16407 -13.80468 8.17183
11.0018 -23.37999 13.16572
4.13004 -12.71096 6.80986
2.50437 -13.12836 6.80986
1.84473 -19.51515 9.98779
-0.36383 -11.57737 5.90188
-1.45175 -11.49175 5.90188
-3.30424 -14.78232 7.71784
-2.20269 -6.77918 3.63192
-2.6556 -5.64345 3.17793
-6.34983 -10.73697 6.35587
-4.18976 -5.76672 3.63192
-4.71387 -5.34683 3.63192
-22.08354 -20.73782 15.43567
-8.65007 -6.28465 5.44789
-9.97005 -5.89627 5.90188
-13.70551 -6.44933 7.71784
-14.54567 -4.22591 7.71784
-21.88061 -4.17395 11.34976
-15.14711 0 7.71784
-13.30578 1.25776 6.80986
-21.7387 4.85918 11.34976
-16.94795 5.50672 9.07981
-10.48069 4.93184 5.90188
-19.17317 11.33898 11.34976
-12.97511 9.42697 8.17183
-9.74274 9.14904 6.80986
-10.6062 12.03037 8.17183
-6.51066 9.58014 5.90188
-18.88681 34.35498 19.97558
-4.47449 15.4013 8.17183
-3.1722 16.62926 8.62582
-1.00704 16.00647 8.17183
0.36383 11.57737 5.90188
1.95138 12.32051 6.35587
3.72874 12.83442 6.80986
4.59202 11.59812 6.35587
10.3019 18.73908 10.89577
7.85581 10.81259 6.80986
8.5391 9.09322 6.35587
13.36708 11.78467 9.07981
11.05401 7.5123 6.80986
10.93113 6.00944 6.35587
15.53678 6.72337 8.62582
12.83442 3.72874 6.80986
15.75404 3.00524 8.17183
21.28926 2.01243 10.89577
16.03812 0 8.17183
16.85399 -1.59317 8.62582
23.63106 -4.50786 12.25774
14.40576 -4.68072 7.71784
12.26588 -5.30792 6.80986
23.42385 -12.87737 13.61971
15.85846 -11.52185 9.98779
11.36202 -10.01696 7.71784
14.02853 -14.93886 10.44178
7.85581 -10.81259 6.80986
8.16407 -13.80468 8.17183
10.24306 -21.76758 12.25774
4.13004 -12.71096 6.80986
2.9155 -13.04322 6.80986
2.79182 -22.09952 11.34976
0 -13.24421 7.04207
-0.99711 -10.54835 5.63366
-3.8053 -19.94809 10.79784
-2.99088 -8.30748 4.69472
-14.66169 -31.15768 18.30939
-4.67085 -6.42888 4.22524
-4.67123 -5.29847 3.75577
-28.96385 -27.19887 21.12622
-9.28616 -6.74679 6.10313
-9.11988 -5.39348 5.63366
-17.82725 -7.71454 10.32837
-12.596 -4.09269 7.04207
-20.05777 -3.17684 10.79784
-16.76773 -0.52695 8.91996
-14.94349 1.41257 7.98102
-29.48848 5.62523 15.96203
-14.95347 5.38358 8.45049
-13.58155 6.39099 7.98102
-14.16445 8.98903 8.91996
-10.46498 8.11747 7.04207
-11.58554 10.87955 8.45049
-12.84589 14.57079 10.32837
-8.43693 12.41457 7.98102
-6.38045 11.60599 7.04207
-9.8185 22.68922 13.1452
-4.18768 14.41411 7.98102
-2.31627 12.14231 6.5726
-2.3266 24.61281 13.1452
0.36054 11.47265 6.10313
4.00558 25.29023 13.61467
4.43402 15.262 8.45049
4.55049 11.49322 6.5726
9.21955 18.09438 10.79784
7.26577 10.00047 6.5726
7.59075 8.61001 6.10313
15.2331 13.42979 10.79784
12.14344 8.82272 7.98102
11.60599 6.38045 7.04207
19.4479 8.41586 11.26732
11.87045 3.44868 6.5726
10.4077 1.98538 5.63366
16.70155 1.57876 8.91996
11.47266 -0.36054 6.10313
15.76774 -1.99192 8.45049
19.66979 -5.05034 10.79784
9.96898 -3.58905 5.63366
19.6678 -10.02125 11.73679
12.41457 -8.43693 7.98102
9.27232 -8.17465 6.5726
15.11048 -16.09102 11.73679
7.26577 -10.00047 6.5726
5.39348 -9.11988 5.63366
6.31189 -14.58593 8.45049
3.27415 -10.0768 5.63366
1.48903 -7.80577 4.22524
1.1633 -12.30641 6.5726
-0.27734 -8.82512 4.69472
-0.99596 -7.88387 4.22524
-1.73348 -7.75515 4.22524
-1.49544 -4.15374 2.34736
-1.50376 -3.19566 1.87789
-5.39348 -9.11988 5.63366
-2.59492 -3.5716 2.34736
-2.91952 -3.31154 2.34736
-9.27232 -8.17465 6.5726
-7.1432 -5.18984 4.69472
-6.9636 -3.82827 4.22524
-17.82725 -7.71454 10.32837
-10.17467 -2.95601 5.63366
-11.27501 -2.15082 6.10313
-17.58058 -1.66185 9.38943
-13.24421 0 7.04207
-11.42738 1.0802 6.10313
-19.08078 3.63985 10.32837
-14.12272 5.08449 7.98102
-10.38589 4.88723 6.10313
-18.23976 10.78696 11.26732
-9.06965 7.03514 6.10313
-8.36733 7.85745 6.10313
-11.67808 13.24617 9.38943
-6.2278 8.57184 5.63366
-5.52972 10.05853 6.10313
-5.96123 13.7756 7.98102
-3.20235 11.02256 6.10313
-1.98537 10.4077 5.63366
-1.10881 17.62411 9.38943
0.38828 12.35517 6.5726
2.62435 16.56946 8.91996
3.547 10.91653 6.10313
5.63912 11.98372 7.04207
8.43693 12.41457 7.98102
7.87937 9.52452 6.5726
11.86242 11.86243 8.91996
9.28616 6.74678 6.10313
9.87987 5.84294 6.10313
16.20658 7.01322 9.38943
10.91653 3.54699 6.10313
11.27501 2.15082 6.10313
15.82252 1.49567 8.45049
11.47832 0 6.10313
10.51182 -1.32795 5.63366
16.37198 -3.65958 8.91996
10.0768 -3.27415 5.63366
10.38589 -4.88723 6.10313
15.1998 -8.98914 9.38943
10.46498 -8.11747 7.04207
8.36734 -7.85745 6.10313
8.44218 -10.20484 7.04207
5.95548 -8.76323 5.63366
4.8102 -9.44054 5.63366
3.88815 -10.79973 6.10313
1.73348 -7.75515 4.22524
1.65994 -13.13978 7.04207
-0.35714 -11.36445 6.30252
-4.0559 -32.10575 17.93795
-2.16218 -6.6545 3.87848
-1.48958 -3.16552 1.93924
-14.24696 -24.0903 15.51391
-3.75242 -4.8376 3.39367
-2.99359 -3.18785 2.42405
-9.18487 -8.09755 6.78733
-7.38466 -4.68645 4.8481
-23.37876 -11.91207 14.54429
-10.91859 -3.17215 6.30252
-10.30953 -1.96665 5.81771
-20.94945 -1.31803 11.63543
-12.23863 0.38461 6.78733
-15.61901 1.97314 8.72657
-23.89957 5.34219 13.57467
-13.98952 5.03654 8.24176
-25.71663 13.10328 15.99872
-12.29747 8.35736 8.24176
-8.52881 7.51915 6.30252
-17.96155 19.12711 14.54429
-5.89931 8.68057 5.81771
-4.21351 7.66435 4.8481
-6.59972 15.25104 9.21138
-2.92813 10.0787 5.81771
-4.42496 23.19645 13.08986
-0.54945 17.48376 9.69619
0.65901 10.47473 5.81771
4.58884 24.05558 13.57467
4.14773 11.52078 6.78733
9.52966 18.703 11.63543
7.37414 10.85072 7.27214
7.18462 7.65084 5.81771
15.08942 13.30312 11.15062
10.12733 6.88253 6.78733
24.93734 12.7062 15.51391
12.34369 4.44401 7.27214
11.94978 2.67109 6.78733
29.50258 3.72704 16.48352
11.36445 -0.35714 6.30252
14.75129 -1.86352 8.24176
21.3389 -4.76982 12.12024
11.52078 -4.14773 6.78733
24.52592 -13.48325 15.51391
10.36628 -8.04091 7.27214
8.28842 -7.78334 6.30252
15.6167 -17.71367 13.08986
4.91609 -7.23381 4.8481
5.47757 -9.96366 6.30252
5.2103 -12.04029 7.27214
2.17509 -8.47142 4.8481
2.30466 -24.38067 13.57467
-0.35714 -11.36445 6.30252
-0.98657 -7.80951 4.36329
-3.81585 -17.07112 9.69619
-2.07387 -5.76039 3.39367
-14.5234 -30.8638 18.90757
-2.57044 -3.53791 2.42405
-2.31359 -2.62425 1.93924
-8.28841 -7.78334 6.30252
-5.16926 -3.28051 3.39367
-12.04029 -5.2103 7.27214
-6.77714 -1.74007 3.87848
-29.37096 -4.6519 16.48352
-11.36445 0.35714 6.30252
-10.41268 1.31543 5.81771
-17.07112 3.81585 9.69619
-7.40622 2.6664 4.36329
-15.82759 7.4479 9.69619
-9.90615 7.19724 6.78733
-5.90456 5.20557 4.36329
-13.17181 14.02655 10.66581
-3.93287 5.78705 3.87848
-4.21351 7.66435 4.8481
-6.94707 16.05372 9.69619
-2.44011 8.39892 4.8481
